5.053640964	-2.427375026	-0.201657271
5.629316104	-2.455878415	-0.278141316
5.155638361	-2.47968995	-0.415002117
5.245892201	-2.532437836	0.429716037
5.385837978	-2.361727103	0.377414996
5.115349362	-2.47140071	0.211194959
5.64166171	-2.477430403	0.169958175
23.95326364	-8.5010164	0.220480246
5.129678186	-2.480642892	0.003878505
5.685173851	-2.497958098	-0.055709116
5.026381099	-2.433288164	-0.200866451
5.568720055	-2.449806092	-0.275517341
5.124671861	-2.484183995	-0.413121024
5.120619812	-2.491362784	0.420078502
5.355749614	-2.368150131	0.375813867
5.075398458	-2.471333358	0.20985758
5.600216093	-2.479752262	0.168937982
30.17947337	-10.8150647	0.278094126
5.087884597	-2.479720596	0.003852639
5.464463367	-2.421010672	-0.0536189
5.003623369	-2.441247791	-0.200255369
5.531956661	-2.453916722	-0.274069605
5.091934224	-2.487635812	-0.411095211
5.138920066	-2.519793802	0.422211991
5.39676659	-2.406107682	0.379208232
5.045365126	-2.47588694	0.208928836
5.566111248	-2.485103555	0.168138371
5.0263989	-2.468866166	0.003811799
5.374840044	-2.401056832	-0.052811522
6.096431301	-2.462294326	-0.120045734
4.955753802	-2.436743988	-0.198637803
5.488836892	-2.454970195	-0.272305217
6.077878838	-2.458009648	-0.360459591
5.067276905	-2.494875286	-0.409720549
5.102554114	-2.521410021	0.419857786
5.36114282	-2.40996956	0.377222861
5.025204548	-2.485152526	0.208408755
5.525646203	-2.48739652	0.167145745
18.36299718	-7.474039433	0.358174713
4.995499285	-2.472741142	0.003794101
5.365625152	-2.416714006	-0.052793581
6.029589099	-2.456840422	-0.118877408
4.922286936	-2.439069118	-0.197595363
5.426639675	-2.447158181	-0.269590762
6.067535601	-2.475513244	-0.360294903
5.006885246	-2.484255201	-0.405451873
5.090331208	-2.534829784	0.419489966
5.368266876	-2.432997059	0.378247554
5.00771838	-2.495654942	0.208000105
5.472475691	-2.483681194	0.165767119
6.078489022	-2.495809346	0.11871119
23.27296074	-8.582575616	0.215171648
4.944936648	-2.466629863	0.003761428
5.362737748	-2.43523135	-0.052838437
5.916600855	-2.43199385	-0.11679632
4.887958258	-2.440765213	-0.196516981
5.424562897	-2.466276124	-0.269862202
6.034982117	-2.483855901	-0.358812655
4.952852035	-2.476410231	-0.401689658
4.977350059	-2.497654885	0.410808818
5.368946332	-2.453187956	0.378823961
4.943777616	-2.482752675	0.205659684
5.409382053	-2.475088407	0.16408518
6.069879669	-2.514063596	0.118693123
22.62988827	-8.424382537	0.209464041
4.921263169	-2.473705191	0.003749176
5.363424092	-2.455418685	-0.052919175
5.92943074	-2.458559204	-0.117197936
4.821528261	-2.426103079	-0.194144552
5.395176075	-2.47291678	-0.268776414
6.024567099	-2.501210606	-0.358647968
4.928307696	-2.483066981	-0.400314996
4.911814988	-2.483662059	0.406026856
5.312449047	-2.4471019	0.375365551
4.888880375	-2.473994042	0.203690764
5.377255025	-2.480367642	0.163340718
6.028925849	-2.518798383	0.118042851
22.24261738	-8.357999221	0.20611581
4.861909699	-2.462584342	0.003709697
5.324996291	-2.457614827	-0.052614164
5.892343278	-2.464393887	-0.116613773
4.791779265	-2.429585479	-0.193245893
5.352196865	-2.473115231	-0.267012027
5.887925531	-2.465686035	-0.350962276
4.880646598	-2.477857551	-0.397059212
4.847301607	-2.469743773	0.401318446
5.272331923	-2.448257918	0.373059953
4.86435272	-2.480356315	0.202984926
5.34605339	-2.485894707	0.162623824
5.942853091	-2.504280702	0.11650748
22.16357726	-8.405986746	0.205621375
4.834735895	-2.467487995	0.003694722
5.292952238	-2.462551227	-0.052371953
5.911470021	-2.493729554	-0.117143167
4.754934764	-2.429271216	-0.192059671
5.266706518	-2.453248253	-0.263121304
5.792951295	-2.446830089	-0.345746959
4.851711195	-2.481918001	-0.395322809
4.814860115	-2.471850244	0.39925851
5.334390834	-2.496998589	0.377991403
6.047795548	-2.567389836	0.359278768
4.825609904	-2.47928485	0.201684681
5.277758441	-2.473859025	0.160776452
5.797115479	-2.463838643	0.113798002
22.15729427	-8.481451081	0.205803541
4.792460483	-2.464473937	0.003668176
5.256401444	-2.465191063	-0.052084882
6.071235937	-2.583095519	-0.120465604
4.710140736	-2.424637215	-0.190549945
5.159686822	-2.422690226	-0.258144793
5.758777477	-2.453242534	-0.344154919
4.832548868	-2.4908507	-0.394382248
4.763849453	-2.464158832	0.395653621
5.248185185	-2.476303781	0.372419502
5.88292668	-2.518729338	0.349941908
4.790469889	-2.479836479	0.200533059
5.240318041	-2.475947143	0.159866557
5.76104122	-2.469401198	0.113238046
21.88491457	-8.454259556	0.203513561
4.749360923	-2.460763625	0.003640949
5.222596606	-2.468912245	-0.051824726
6.066957818	-2.603286556	-0.12053862
4.692034627	-2.433554863	-0.190118586
5.148618051	-2.436799091	-0.257963833
5.789755216	-2.487452756	-0.346460635
4.762039112	-2.473028465	-0.38924537
4.732388459	-2.466318089	0.393667266
5.198206126	-2.472248334	0.369409407
5.863254116	-2.531620487	0.349232076
4.738537401	-2.471415869	0.19867557
5.192084754	-2.472671209	0.158625782
5.700208011	-2.464054038	0.112190382
21.77502513	-8.488673998	0.202732874
4.720513371	-2.464216533	0.003624612
5.198748449	-2.477180676	-0.051663253
6.04517869	-2.615931484	-0.120264796
4.631403528	-2.420168145	-0.187961822
5.099642954	-2.432797571	-0.255882767
5.707885015	-2.473049988	-0.34201392
4.727034463	-2.473292607	-0.387002507
4.677119277	-2.455789841	0.389694557
5.152801685	-2.470066748	0.366719539
5.779474473	-2.516511128	0.344700156
4.706163637	-2.472926288	0.197635394
5.13400844	-2.464364769	0.157081709
5.661459382	-2.467946156	0.111576231
21.50414343	-8.459166067	0.200451566
4.683724393	-2.463326351	0.00360215
5.162279688	-2.479265612	-0.051376183
6.044455601	-2.637664536	-0.120410835
4.589469038	-2.41620938	-0.186559935
5.066946444	-2.436310655	-0.254616019
5.705760449	-2.492948576	-0.342343295
4.691190402	-2.472900314	-0.384687284
4.643116375	-2.456137706	0.387487486
5.147894867	-2.487166198	0.366911675
5.733327633	-2.51737018	0.342406868
4.677357868	-2.476131798	0.196743798
5.111126361	-2.472703186	0.156612978
5.596196565	-2.459955814	0.110438252
21.30986408	-8.45832801	0.19888155
4.646985304	-2.462233926	0.003579687
5.10964599	-2.473308106	-0.050927639
6.029013843	-2.652974679	-0.120264796
4.556432138	-2.416698512	-0.185517495
5.038771619	-2.44182421	-0.253575471
5.684379626	-2.504403191	-0.341519828
4.665083645	-2.4774573	-0.383167932
4.612676212	-2.458176146	0.385574684
5.099864639	-2.483287815	0.364029671
5.447105068	-2.411656926	0.32575336
4.626533958	-2.467427772	0.194923473
5.070271182	-2.472163021	0.155592785
5.55388855	-2.46171736	0.109751852
20.93013643	-8.382026227	0.195576681
4.618236869	-2.465177398	0.003563351
5.072376299	-2.474504256	-0.050631601
6.015362472	-2.669025915	-0.120155265
6.127695336	-2.458342241	-0.184191954
4.549877645	-2.431137207	-0.185553437
4.995350723	-2.439735204	-0.251765843
5.583594311	-2.480482772	-0.33592024
4.624921929	-2.474349544	-0.380490968
4.582267809	-2.460051216	0.383661882
5.06803336	-2.487052079	0.362300451
5.44150389	-2.429171126	0.325862585
4.604857013	-2.474042799	0.19432908
5.049205532	-2.481093947	0.155179203
5.51344864	-2.464058365	0.10910158
20.69571382	-8.36191355	0.193624986
4.591275911	-2.468914993	0.003548376
5.013610629	-2.464906858	-0.050120261
5.968813964	-2.670319379	-0.119388548
6.092326691	-2.465878985	-0.183355358
4.475520055	-2.409085657	-0.182821547
4.932272525	-2.427697378	-0.248960909
5.573224331	-2.496376921	-0.335755552
4.596237492	-2.477170259	-0.378754565
4.552768072	-2.462237366	0.381822661
5.012074431	-2.478699818	0.358842041
5.424009771	-2.441345803	0.325261949
4.558576033	-2.467229811	0.192694512
5.002154478	-2.477054569	0.153965995
5.477604347	-2.468228373	0.108541617
20.66162898	-8.421970132	0.193546919
4.547629279	-2.463460552	0.003520469
4.989000642	-2.471842028	-0.049949817
5.371825478	-2.423045838	-0.107595732
5.990338527	-2.446014575	-0.180510906
4.41978992	-2.396604661	-0.180844506
4.89258398	-2.426837472	-0.247332213
5.412659563	-2.444421296	-0.326532716
6.089341292	-2.488796317	-0.424593296
4.552678406	-2.471748318	-0.375788191
4.491771614	-2.447089968	0.377334968
4.960680576	-2.472253617	0.355703856
5.410129456	-2.455086516	0.324879734
4.534314729	-2.472115021	0.191988659
4.947126251	-2.468733101	0.152504638
5.433594074	-2.468479837	0.107819097
6.121438587	-2.517112678	0.057414381
4.495281613	-2.452971857	0.003485754
4.951870176	-2.472395835	-0.049653776
5.32432015	-2.421303481	-0.106792507
5.945835344	-2.449152603	-0.179395435
4.383474021	-2.394344147	-0.179658299
4.867244252	-2.4329033	-0.246427414
5.400591275	-2.458946888	-0.326258207
6.045696261	-2.492631545	-0.422081288
4.532822703	-2.479004002	-0.37477527
4.460636892	-2.447904648	0.375348613
4.939695409	-2.480743065	0.354743178
5.408020197	-2.474165527	0.325207352
4.498680185	-2.470621073	0.190799874
4.928812407	-2.478509909	0.152173773
5.403269361	-2.474729778	0.107367517
6.074893739	-2.51978989	0.057050066
4.46056862	-2.451819124	0.003464653
4.903170998	-2.466902782	-0.049241118
5.308686946	-2.433876602	-0.106628215
5.975217475	-2.48272459	-0.180510906
4.352467039	-2.394774141	-0.178687756
4.819608403	-2.427601721	-0.244391557
5.378502585	-2.4688394	-0.325379844
5.936665284	-2.469014841	-0.414996144
4.492873364	-2.475092596	-0.372098307
4.453105888	-2.461578162	0.375348614
4.902677375	-2.481016287	0.352629716
5.414004624	-2.497018333	0.326026379
4.458725308	-2.466513534	0.189425346
4.856984392	-2.461088318	0.150188536
5.379312181	-2.483750737	0.107042374
5.897398791	-2.467400103	0.055454018
4.42240552	-2.44853918	0.003440829
4.87595793	-2.471986141	-0.049043756
5.276689977	-2.438826157	-0.106135329
6.358465581	-2.664870274	-0.192334888
4.373070329	-2.423617879	-0.179838022
4.782741274	-2.427456578	-0.24289861
5.321969412	-2.462685261	-0.322415347
5.860965096	-2.458650217	-0.410229769
4.467816405	-2.479186062	-0.370651314
4.895717788	-2.487699103	-0.451001964
4.397609635	-2.448545187	0.371302322
4.871927669	-2.484259172	0.350964542
5.364668637	-2.49425175	0.323514699
5.959749903	-2.514264495	0.292370608
4.411854664	-2.45829277	0.187753615
4.819140868	-2.460522838	0.149251059
5.306401797	-2.469865026	0.10574183
5.84465767	-2.466431303	0.055028984
4.38168447	-2.443586938	0.003414963
4.806906998	-2.45554571	-0.048424765
5.251057203	-2.446558176	-0.105770221
6.194656882	-2.618589096	-0.187622023
4.371722224	-2.440432651	-0.180089643
4.757483523	-2.433021252	-0.241993797
5.239283479	-2.443966816	-0.31785884
5.842366025	-2.47195348	-0.409456846
4.421881888	-2.471470856	-0.367467889
4.852577398	-2.484538705	-0.44772791
4.369200871	-2.450317733	0.369536654
4.784395542	-2.458149317	0.345200534
5.308168019	-2.48781626	0.320566206
5.935462256	-2.525496764	0.291557839
4.382505682	-2.459589643	0.186824885
4.795569382	-2.467065023	0.148754761
5.275265535	-2.475091309	0.105272183
5.80762057	-2.471819303	0.054751409
4.357601501	-2.447713172	0.00340203
4.780679686	-2.460671353	-0.048236377
5.215471734	-2.449480692	-0.105204312
6.175559547	-2.632877276	-0.187287388
4.285815433	-2.409752511	-0.176854496
4.699379627	-2.421523419	-0.239415061
5.194713848	-2.442609413	-0.31560802
5.822822684	-2.484774252	-0.40861952
4.391681366	-2.472304357	-0.365586767
4.802417309	-2.477481761	-0.443799012
4.329534258	-2.445562827	0.3668146
4.751130169	-2.459511406	0.343343253
5.271620022	-2.490441272	0.318818956
5.918505847	-2.539755118	0.291106304
4.340141702	-2.453353188	0.185338897
4.75336626	-2.463825542	0.147679419
5.232397018	-2.474592807	0.104567723
5.734768581	-2.461620992	0.054135544
4.316997834	-2.44235914	0.003376165
4.740263433	-2.458293657	-0.047904458
5.176303158	-2.450496698	-0.104565387
6.159188158	-2.648257727	-0.187036407
4.221009436	-2.390387696	-0.174482068
4.676856187	-2.428104325	-0.238645968
5.150202235	-2.441001559	-0.313357199
5.805088807	-2.498287465	-0.407910999
4.368458673	-2.47691129	-0.364284465
4.770917112	-2.479793399	-0.44158902
4.302073993	-2.447491728	0.365122514
4.724095924	-2.46392328	0.341934259
5.217977258	-2.484709122	0.316034286
5.814420667	-2.516241368	0.286365171
4.302199235	-2.449352355	0.184038666
4.703253666	-2.456185976	0.146355928
5.201314332	-2.479447645	0.104098076
5.6978242	-2.466491539	0.053857969
4.295582845	-2.447670746	0.003365274
4.706997176	-2.459395852	-0.047644302
5.135373464	-2.450434234	-0.103889947
5.947436899	-2.57885948	-0.180845541
4.194558114	-2.39243356	-0.173691248
4.60653632	-2.409566812	-0.235433859
5.143589961	-2.457221101	-0.313412095
5.684799515	-2.467217685	-0.399988529
4.344383189	-2.480904514	-0.362909803
4.750926146	-2.487945519	-0.44044312
4.268585347	-2.445804515	0.362915471
4.657326178	-2.447302999	0.337643261
5.166220226	-2.479535481	0.313358812
5.780121419	-2.522480203	0.285055716
4.269524183	-2.448124551	0.182961341
4.64704071	-2.445003933	0.144839436
5.141412882	-2.470279307	0.103050413
5.654488637	-2.46835833	0.053519675
4.271574133	-2.451380643	0.003352341
4.668460255	-2.457522292	-0.04733032
5.114315805	-2.45967761	-0.103616116
5.600620428	-2.448917296	-0.170527455
4.186331779	-2.404793157	-0.173655306
4.606192125	-2.427413823	-0.235795778
5.049661969	-2.431405195	-0.308141912
5.594011049	-2.448237472	-0.394127187
4.298709637	-2.472342117	-0.359726379
4.700959586	-2.480186467	-0.43651425
4.236012018	-2.444433668	0.360781954
4.573063956	-2.420958279	0.332071389
5.106454554	-2.470154599	0.310191898
5.698292338	-2.507609063	0.281398257
4.234301181	-2.445219943	0.181772557
4.607721917	-2.442395594	0.143846811
5.097814814	-2.468610797	0.102327885
5.580078414	-2.456285114	0.052886462
4.227670139	-2.443457367	0.003323753
4.626445581	-2.453561555	-0.046980456
5.089651191	-2.467070517	-0.103269269
5.56747064	-2.454796305	-0.16974662
4.172014122	-2.413621997	-0.173367744
4.581076534	-2.432165156	-0.234890964
5.038585701	-2.445142116	-0.307922328
5.56730125	-2.456927019	-0.392774549
4.267802086	-2.472021132	-0.357772926
4.672206849	-2.483370769	-0.434549801
4.192277631	-2.436371589	0.357692078
4.518946241	-2.410087103	0.328677024
5.080901787	-2.477058082	0.309099882
5.651307994	-2.507656815	0.279456635
4.216413385	-2.452170354	0.181326759
4.588743861	-2.45039921	0.143488363
5.056072912	-2.467575191	0.101641486
5.540527233	-2.459194452	0.052582865
4.195090345	-2.441827616	0.003304013
4.597728763	-2.456434784	-0.046765156
5.010188768	-2.447564224	-0.101808859
5.55443275	-2.469428946	-0.169579295
4.136958128	-2.410311274	-0.172217464
4.533072098	-2.424535359	-0.232809883
5.012224257	-2.451376379	-0.306769456
5.538767407	-2.464664414	-0.391293106
4.198168951	-2.448919475	-0.352563689
4.634692994	-2.481697477	-0.431766859
4.169290687	-2.440154382	0.356367813
4.493949258	-2.414493267	0.32739612
5.037431223	-2.475021725	0.306915818
5.581580756	-2.497240241	0.276386191
4.176965191	-2.446408274	0.179952231
4.55831628	-2.452152877	0.142771483
5.010796532	-2.464541541	0.100882837
5.469978157	-2.447995947	0.051984345
4.164286079	-2.441032329	0.003285634
4.575202055	-2.462472263	-0.04661265
4.973055016	-2.448350358	-0.101206442
5.540445336	-2.483595815	-0.169384089
4.076103604	-2.391636135	-0.169988816
4.479881394	-2.41379105	-0.230457347
4.973333279	-2.451291972	-0.30484804
5.520254154	-2.476743506	-0.390520182
4.158817145	-2.443095766	-0.349886725
4.609514247	-2.486441651	-0.430129818
4.145460484	-2.443312747	0.354970023
4.459313303	-2.413543778	0.325410749
4.991336461	-2.471412901	0.304567932
5.540199917	-2.499153814	0.274715503
4.14361791	-2.443980962	0.178837743
4.529679033	-2.454695427	0.142109737
4.976337039	-2.46658206	0.100340942
5.437832452	-2.453661836	0.051750144
4.130942923	-2.438546408	0.003265214
4.540374671	-2.461722154	-0.046334553
4.933276561	-2.447598599	-0.100549256
5.521869175	-2.495641812	-0.169049454
4.049818603	-2.392945721	-0.169197996
4.475088996	-2.428953497	-0.230593067
4.90587434	-2.436778148	-0.301169867
5.489898984	-2.48338556	-0.388909933
4.12554957	-2.440608718	-0.347716222
4.545818786	-2.470117445	-0.424891315
4.113074649	-2.441257854	0.352836506
4.462402123	-2.432945666	0.326179291
4.9542466	-2.47200278	0.302766083
5.464304984	-2.485121816	0.271328975
4.128367818	-2.452089124	0.178503391
4.501946635	-2.457564564	0.141475559
4.939229025	-2.467093993	0.099744851
5.40843414	-2.460395706	0.051541963
4.103671596	-2.439455811	0.003249558
4.495064303	-2.455029668	-0.045948807
4.908752439	-2.454226762	-0.100202409
5.378651453	-2.450813636	-0.164894325
4.044175671	-2.406381273	-0.169269894
4.391358874	-2.400977639	-0.226657119
4.846588223	-2.425896304	-0.297985787
5.37693115	-2.452183303	-0.381438313
4.10090537	-2.443045023	-0.3462692
4.523356675	-2.475917239	-0.423499844
4.079884173	-2.4385156	0.350629435
4.407682357	-2.420683843	0.322720881
4.910955779	-2.469248751	0.30058202
5.425780581	-2.487718199	0.269793739
4.101958085	-2.453458156	0.177686107
4.445333451	-2.44439214	0.139931486
4.897699134	-2.465153941	0.099058451
5.381772725	-2.468222836	0.051359804
4.082440143	-2.443816099	0.003238668
4.456846705	-2.451938919	-0.045634825
4.862804808	-2.449931216	-0.099417438
5.269371514	-2.420569635	-0.161771012
4.02562978	-2.412099706	-0.168802594
4.340219904	-2.390342638	-0.224395063
4.822184004	-2.432210317	-0.296942735
5.350342219	-2.459913715	-0.380085704
4.068587689	-2.440735608	-0.344171056
4.49915677	-2.480640062	-0.42194467
4.057003643	-2.441764105	0.349305199
4.403727906	-2.436127184	0.322977061
4.874854539	-2.469862781	0.29883477
5.383664497	-2.488425456	0.2680779
4.056745971	-2.443345667	0.176051524
4.405458965	-2.440098391	0.138911293
4.838394492	-2.453937657	0.098010788
5.341499849	-2.469615157	0.051047536
4.050086726	-2.441358093	0.003218928
4.425688004	-2.45251407	-0.045392614
4.833868651	-2.453976186	-0.098979314
5.234708335	-2.424122774	-0.160934416
3.991685167	-2.40843423	-0.167688256
4.334612969	-2.404616376	-0.224485543
4.787105615	-2.432969093	-0.295240904
5.328283568	-2.469602369	-0.379055139
4.036323185	-2.438250735	-0.342072884
4.465386543	-2.479914988	-0.419489108
4.020495362	-2.43662505	0.34680386
4.377054829	-2.438939787	0.321568067
4.814783951	-2.458020078	0.295613258
5.318957623	-2.478349636	0.265233209
4.036414042	-2.448007039	0.17549428
4.386603739	-2.447271356	0.13855286
4.787217841	-2.446475441	0.097125696
5.31214544	-2.475852738	0.050839355
4.010948171	-2.434573522	0.003193743
4.393694649	-2.452434244	-0.045141429
4.79872295	-2.454679641	-0.098413405
5.223623177	-2.43847996	-0.160822866
3.965487508	-2.409253417	-0.166897451
4.306285497	-2.406208605	-0.22339977
4.73962547	-2.427163654	-0.292770499
5.302599849	-2.477489409	-0.377766934
3.986217601	-2.424706579	-0.338455359
4.426443868	-2.476086856	-0.416542462
3.999380114	-2.440636273	0.345626758
4.354757012	-2.444053812	0.320479299
4.782358301	-2.459991507	0.294084428
5.274256776	-2.477243723	0.263381889
4.005004961	-2.445796015	0.17445409
4.362516938	-2.45141351	0.13802898
4.757466745	-2.449708123	0.096674116
5.274657943	-2.47810647	0.050553108
3.98639489	-2.436437597	0.003180129
4.352155765	-2.446790662	-0.044791564
4.763619033	-2.455190626	-0.097847497
5.168180089	-2.43193702	-0.159344864
3.931650691	-2.405241072	-0.165783127
4.289307025	-2.414019243	-0.222902116
4.673592847	-2.411475454	-0.289147223
5.20017905	-2.449100941	-0.371003834
3.954944949	-2.42233855	-0.336429545
4.404933678	-2.481827867	-0.415232829
3.975729293	-2.442974534	0.34422894
4.313356893	-2.438249918	0.317981566
4.734008973	-2.453516891	0.291572748
5.25489395	-2.487856199	0.262794902
3.965134654	-2.438180776	0.173042413
4.33757687	-2.454938622	0.137477518
4.710878352	-2.444032707	0.095879333
5.220939237	-2.472450302	0.050110726
3.962720191	-2.438698189	0.003167196
4.331576536	-2.452740636	-0.044656999
4.709923062	-2.445832916	-0.096898233
5.130890513	-2.433644683	-0.158424599
3.900428146	-2.402616104	-0.164776628
4.230606056	-2.398102438	-0.220232901
4.63162125	-2.407840433	-0.287006224
5.156580726	-2.44792498	-0.368427423
3.917782646	-2.416136779	-0.333897272
4.360893202	-2.474671128	-0.411795072
3.942772766	-2.439418868	0.342021898
4.29978574	-2.448015449	0.31753325
4.700791416	-2.454625828	0.289989292
5.216582414	-2.489338323	0.261259665
3.93639493	-2.437183106	0.172113684
4.294419038	-2.447938245	0.136347041
4.658167669	-2.434852712	0.094958114
5.178134699	-2.471656816	0.049772432
3.94501908	-2.444523399	0.003159028
4.301446535	-2.453138058	-0.044423759
4.689994612	-2.453782189	-0.096642656
5.1089702	-2.442476177	-0.157978413
3.857369557	-2.392448077	-0.163266902
4.185056528	-2.389277612	-0.218242299
4.597677025	-2.408140211	-0.285359288
5.135543792	-2.457272708	-0.367461262
3.86374938	-2.399207379	-0.329918007
4.335974648	-2.478147829	-0.410158031
3.902257657	-2.430938219	0.339152709
4.271477732	-2.44928181	0.315996195
4.667611825	-2.455554219	0.288405864
5.179211995	-2.491041834	0.259769608
3.913634513	-2.439732417	0.171444979
4.244409807	-2.436714741	0.134995968
4.640944457	-2.444007523	0.094759421
5.161516473	-2.483196374	0.049685689
3.922229408	-2.447087075	0.003146776
4.271355431	-2.453374054	-0.044190515
4.650602921	-2.451375447	-0.09598547
5.042918924	-2.429934061	-0.156165776
3.8432302	-2.400036531	-0.162979325
4.173376538	-2.399616143	-0.218016099
4.578787321	-2.416176374	-0.284645612
5.109104612	-2.463913559	-0.366108653
3.847067724	-2.405233666	-0.329122165
4.312803491	-2.482489261	-0.408684723
3.871970229	-2.428590921	0.337166325
4.253573144	-2.456386083	0.315227653
4.63270638	-2.455367223	0.286713211
5.098732	-2.471623262	0.256112148
3.878200007	-2.434196508	0.170219046
4.21268326	-2.435715089	0.134223939
4.60869402	-2.445113738	0.094253646
5.069295558	-2.458009591	0.048870316
3.899461439	-2.449534194	0.003134524
4.235245001	-2.449943644	-0.043894477
4.62981485	-2.458597901	-0.095711646
4.980590157	-2.418756786	-0.154464689
3.824850806	-2.404900856	-0.162512039
4.156485464	-2.406901946	-0.217518445
4.551956666	-2.419901152	-0.283437843
5.080878563	-2.469543173	-0.36462721
3.82954159	-2.410648919	-0.328253963
4.256019391	-2.467217896	-0.404019169
3.85185279	-2.43247114	0.336062805
4.214098147	-2.450861062	0.31285801
4.60313131	-2.457810889	0.285348175
5.06599278	-2.474975948	0.254847844
3.8512842	-2.433804754	0.169364613
4.181866788	-2.43504683	0.133479476
4.565899097	-2.440389375	0.093531119
5.02848897	-2.457305916	0.048549371
3.869108664	-2.447053714	0.003116146
4.199195403	-2.446314853	-0.043598439
4.577288313	-2.448736894	-0.094780636
4.95878047	-2.426994787	-0.154018504
3.790434428	-2.399518938	-0.161361759
4.130959615	-2.409074375	-0.216568377
4.538349948	-2.430555277	-0.283053572
5.053562155	-2.475461652	-0.363210198
3.800224704	-2.408504669	-0.326372841
4.229494217	-2.469208969	-0.402218452
3.831748219	-2.436250554	0.334959284
4.166947761	-2.440577687	0.309911961
4.55160104	-2.448271347	0.282618075
5.042243684	-2.482563806	0.254035076
3.826936878	-2.434880264	0.168621626
4.160579693	-2.439774695	0.133038313
4.481801309	-2.413147757	0.091959627
5.002087474	-2.463443801	0.048367215
3.846399827	-2.44924437	0.003103893
4.170970966	-2.447042208	-0.043383136
4.542469416	-2.448063775	-0.094214728
4.910072709	-2.421855985	-0.152735707
3.774627573	-2.405765212	-0.161002298
4.102014151	-2.409089118	-0.215437364
4.472873651	-2.41317657	-0.279430295
4.975252139	-2.456056883	-0.358121779
3.80458873	-2.427663158	-0.327385733
4.188391911	-2.462473448	-0.399026237
3.804937173	-2.435628554	0.333267197
4.119041374	-2.429521593	0.306901867
4.509829532	-2.443671548	0.280488609
4.981805146	-2.471824805	0.251370987
3.797570365	-2.432595071	0.167655733
4.136721277	-2.442870111	0.132514433
4.496348544	-2.438803785	0.092411207
4.966739391	-2.464997527	0.048098316
3.804351428	-2.438905697	0.003075986
4.14794718	-2.450671353	-0.04322166
4.505062058	-2.445769126	-0.09359405
4.847121658	-2.40932254	-0.151006726
3.73863191	-2.398984334	-0.159780135
4.084285591	-2.415559995	-0.21489447
4.440007106	-2.413060751	-0.277838255
4.936422166	-2.455752448	-0.355867412
3.784535593	-2.431237932	-0.326300481
4.160235041	-2.463125561	-0.397061787
3.786549206	-2.44026731	0.332310782
4.091833798	-2.430425759	0.305428828
4.470759116	-2.440274049	0.278522966
4.948286277	-2.474141049	0.250061532
3.780011765	-2.437735232	0.167209935
4.101713243	-2.43919992	0.131632105
4.473929266	-2.444437375	0.092104131
4.949315455	-2.475303504	0.0480029
3.785088451	-2.442973988	0.003066456
4.106893966	-2.443445304	-0.042871799
4.465956971	-2.442308566	-0.092936864
4.86026364	-2.434478689	-0.151648117
3.717823504	-2.401766474	-0.159204995
4.062264804	-2.419389194	-0.214125377
4.375654329	-2.39550458	-0.274269904
4.884259655	-2.448524494	-0.352646884
3.784596154	-2.44771215	-0.326951632
4.135537883	-2.465669763	-0.395424775
4.890498269	-2.460820843	0.44769948
3.753109153	-2.435045595	0.330030159
4.056952256	-2.426575399	0.303379411
4.447501855	-2.445319157	0.277540116
4.881791567	-2.459643929	0.247081389
3.76497158	-2.444423248	0.166875598
4.073628188	-2.439446717	0.130970359
4.431371528	-2.438868126	0.091381604
4.88812008	-2.463474148	0.047482448
3.755773744	-2.440408806	0.003048758
4.076217939	-2.442157555	-0.042629585
4.44530672	-2.448762129	-0.09266304
4.805475706	-2.425506093	-0.15017013
3.699546623	-2.406078353	-0.158737695
4.017127687	-2.409233243	-0.212134775
4.35254587	-2.400238592	-0.273281748
4.855347079	-2.452698817	-0.351101037
3.719397485	-2.421760789	-0.321959475
4.117700279	-2.472189606	-0.394442551
3.732261644	-2.437822636	0.328853057
4.03581056	-2.43077238	0.302354688
4.415521142	-2.445407265	0.276011287
4.85551647	-2.465112614	0.246133169
3.741561458	-2.445574294	0.166169759
4.03530808	-2.43334992	0.129977748
4.401132213	-2.439847949	0.090911964
4.842200971	-2.458990141	0.04710946
3.725673913	-2.437139392	0.00303038
4.05928796	-2.448969842	-0.042530905
4.422036532	-2.453656877	-0.092334447
4.770390515	-2.426189842	-0.149305639
3.684622848	-2.412490284	-0.15841419
3.966105699	-2.395208249	-0.20982748
4.318975405	-2.399035235	-0.271634812
4.811336708	-2.449023137	-0.348460195
3.691930453	-2.420037575	-0.320223043
4.083656666	-2.468826525	-0.391905151
3.70643284	-2.437207037	0.327234523
4.00956219	-2.43175764	0.300945695
4.394917567	-2.451645821	0.275192259
4.829254074	-2.470443181	0.245184948
3.70983195	-2.441112063	0.165092421
4.008171492	-2.433785803	0.12934357
4.374421291	-2.442614939	0.090514572
4.816830034	-2.464724202	0.046935974
3.703146481	-2.438658204	0.003018128
4.024407695	-2.444798209	-0.042243835
4.383940803	-2.450139471	-0.091695515
4.742463907	-2.430328443	-0.148664248
3.656344046	-2.410033575	-0.157515531
3.946788872	-2.4000982	-0.209194106
4.3028813	-2.40739911	-0.271085824
4.7682827	-2.445556229	-0.345883784
3.649525051	-2.408280813	-0.317184338
4.04967243	-2.465277731	-0.389367751
3.682306095	-2.437557086	0.325763152
3.9910107	-2.437285741	0.300113136
4.364742236	-2.45240073	0.273772625
4.792349452	-2.470143894	0.243694862
3.677332093	-2.435926062	0.163977933
3.987893027	-2.438249548	0.128929973
4.33553414	-2.438379539	0.089864301
4.777249174	-2.462994025	0.046623705
3.67064289	-2.433431255	0.002997707
3.986179339	-2.438348971	-0.041920885
4.35723556	-2.452787549	-0.091293906
4.69412849	-2.423770328	-0.147381452
3.60479939	-2.391955027	-0.155610388
3.921516117	-2.401240239	-0.208244052
4.290255987	-2.417647655	-0.270756448
4.743026461	-2.451010876	-0.344595578
3.634642436	-2.414499199	-0.316533187
4.025945687	-2.467794322	-0.387812577
4.349110508	-2.459199345	0.455924468
3.646593851	-2.430039394	0.323261813
3.95716157	-2.433313834	0.298127736
4.34155571	-2.456928105	0.272789775
4.741306909	-2.462274747	0.241482322
3.633259388	-2.422802208	0.16234335
3.956559343	-2.435799414	0.128157944
4.306283666	-2.43934927	0.089412721
4.741274458	-2.462888364	0.04634613
3.648187913	-2.434689355	0.002985455
3.962502868	-2.440602995	-0.041750438
4.324466659	-2.451843104	-0.090764505
4.652972163	-2.420629626	-0.146321756
3.605754014	-2.408554049	-0.155969849
3.909878778	-2.410638721	-0.208017838
4.220295571	-2.395312462	-0.266803796
4.690342372	-2.442047326	-0.341310647
3.611465219	-2.415104562	-0.315158525
3.999696727	-2.468618154	-0.386011831
4.314718795	-2.457252944	0.453107314
4.703775345	-2.457999659	0.434006863
3.62918284	-2.434548547	0.322378979
3.925071739	-2.430208123	0.296270455
4.284550257	-2.442052956	0.269677489
4.710717161	-2.464767928	0.240308334
3.615852827	-2.427253927	0.161897567
3.919330767	-2.429493126	0.1271929
4.282279152	-2.443135423	0.089069517
4.687626071	-2.453311463	0.045895075
3.626590032	-2.43639027	0.002973884
3.939700213	-2.443262112	-0.041588962
4.298690849	-2.454687115	-0.090381151
4.651721677	-2.438141642	-0.146516961
3.518734545	-2.36607135	-0.152519037
3.895674866	-2.418407645	-0.207655918
4.204258556	-2.403293605	-0.266254808
4.634223918	-2.430929603	-0.337768075
3.585009245	-2.413362527	-0.313494453
3.982793054	-2.475090638	-0.385111473
4.275197058	-2.452145811	0.449744925
4.693566164	-2.471026216	0.433762335
3.605993255	-2.435067119	0.32098119
3.903200771	-2.433263655	0.295181687
4.258852771	-2.444747098	0.268530845
4.669551942	-2.461506805	0.238592481
3.593485232	-2.428264622	0.161228877
3.879634331	-2.421393952	0.12614514
4.258292553	-2.446797583	0.088726314
4.664155576	-2.459286301	0.045738937
3.605844477	-2.438541866	0.002962993
3.914373903	-2.44421514	-0.041400574
4.255604212	-2.447426934	-0.089632688
4.637148185	-2.448667448	-0.146293861
3.513941808	-2.378536097	-0.152626877
3.843340199	-2.402285151	-0.205258143
4.176097277	-2.40422445	-0.264937247
4.597628428	-2.429748862	-0.335642543
3.558598076	-2.411481319	-0.31183041
3.954903778	-2.474610615	-0.383147024
4.25213219	-2.456284061	0.448109165
4.663070235	-2.473271907	0.431643241
3.591907419	-2.441633491	0.320392624
3.876276999	-2.433024753	0.293708648
4.20983917	-2.43381322	0.265909969
4.63462738	-2.461295961	0.237192725
3.578582024	-2.434219476	0.160894525
3.853567098	-2.42158415	0.125538543
4.222207913	-2.443324339	0.08813023
4.610667522	-2.44919072	0.045287883
3.581813491	-2.438338203	0.002949379
3.885692814	-2.44290727	-0.041176304
4.234232535	-2.452453639	-0.089340603
4.566073596	-2.429079982	-0.144286019
3.513234831	-2.393807341	-0.15291444
3.835951971	-2.41406505	-0.205258143
4.155744472	-2.409512627	-0.264113779
4.576058369	-2.436339079	-0.334611979
3.535528075	-2.411708765	-0.310455748
3.894167812	-2.453264233	-0.377990387
4.284541314	-2.487487963	-0.453577678
3.852560828	-2.433894098	0.458622729
4.223056578	-2.456798572	0.445837246
4.635242498	-2.476763044	0.429768675
3.558062136	-2.434620097	0.31803842
3.856140054	-2.436908614	0.292747999
4.188545814	-2.438678849	0.265036343
4.612079902	-2.467492074	0.236425107
3.541413593	-2.424862214	0.159557146
3.835138082	-2.42644739	0.125180096
4.193095855	-2.443680563	0.08767865
4.586380318	-2.454360307	0.045123072
3.557817767	-2.438010162	0.002935766
3.850297384	-2.437167951	-0.040880263
4.180915416	-2.438732775	-0.088373085
4.538335216	-2.43221685	-0.143644628
3.491864083	-2.394965245	-0.152303358
3.806587748	-2.411920628	-0.204081889
4.14229701	-2.418726596	-0.263729508
4.528109489	-2.428669671	-0.331649092
3.550312239	-2.437787538	-0.312409202
3.872315292	-2.456124761	-0.376598916
4.262275315	-2.492076135	-0.452027749
3.804777748	-2.420070337	0.453816181
4.183706817	-2.451116815	0.442474857
4.563556525	-2.456486887	0.423818909
3.521008428	-2.425159412	0.315389947
3.828438325	-2.435870599	0.291210915
4.141421975	-2.428285447	0.262524664
4.57722697	-2.466937328	0.235025336
3.514210078	-2.422105175	0.15866555
3.815029171	-2.43014623	0.124766499
4.152811765	-2.437301941	0.086992251
4.556823873	-2.456556537	0.044906216
3.520687298	-2.428473285	0.002911261
3.829309823	-2.440370329	-0.040736731
4.144964501	-2.434836651	-0.087770661
4.486871616	-2.422384654	-0.142250297
3.471341604	-2.396582423	-0.151728218
3.774746357	-2.408007177	-0.202769902
4.096985648	-2.409154129	-0.261314
4.507467454	-2.43543455	-0.33068293
3.476357931	-2.402734439	-0.306548814
3.843762016	-2.454583164	-0.374552629
4.197115215	-2.47128774	-0.445919286
3.776387863	-2.418317514	0.451312786
4.155582536	-2.451795588	0.440293835
4.531466439	-2.457173639	0.421536797
3.495520612	-2.423449558	0.313771413
3.78817456	-2.426611472	0.288713182
4.127073803	-2.436918082	0.262087851
4.538031771	-2.463809044	0.233399799
3.491162407	-2.422052365	0.157959712
3.793251089	-2.432665419	0.124297768
4.114328475	-2.431717014	0.086341979
4.522903231	-2.456208786	0.044645993
3.50172024	-2.431278476	0.002901732
3.806655721	-2.442387326	-0.040575255
4.128869821	-2.442451145	-0.087588114
4.458343215	-2.424676717	-0.141581011
3.457407317	-2.402658824	-0.151440655
3.74044329	-2.402301577	-0.20132218
4.040603341	-2.392712585	-0.258184815
4.447384121	-2.420627983	-0.326818314
3.470607515	-2.414527578	-0.306693504
3.823638501	-2.458279665	-0.373324863
4.168955554	-2.471962972	-0.443731169
3.773132058	-2.432587651	0.451813465
4.111226502	-2.442660095	0.436386154
4.50816236	-2.46246445	0.420069747
3.467623299	-2.41989396	0.311932192
3.771486568	-2.432272391	0.288008685
4.106704389	-2.441913407	0.261268852
4.497145523	-2.459505065	0.23168396
3.466509666	-2.420736507	0.157179576
3.773172929	-2.436158353	0.123884172
4.080214231	-2.428475742	0.085782023
4.494291978	-2.458555605	0.044437813
3.482769364	-2.433990529	0.002892202
3.785705114	-2.445373303	-0.040431719
4.11019047	-2.448454882	-0.087350798
4.37022953	-2.394158289	-0.139015433
3.438555366	-2.405235105	-0.150937413
3.720472273	-2.405629468	-0.200643566
4.042677238	-2.410723241	-0.2587887
4.389184578	-2.406435304	-0.323082504
3.424785339	-2.398274908	-0.303293058
3.794325127	-2.455918479	-0.371196709
4.140831906	-2.472488725	-0.441543053
3.735606193	-2.424650813	0.448208576
4.085766825	-2.444524284	0.434477762
4.485741666	-2.468115946	0.418684178
3.451206044	-2.424215561	0.31112294
3.762332833	-2.442744883	0.287880595
4.081203508	-2.443728954	0.260122209
4.472079101	-2.463649898	0.23078089
3.449255976	-2.42446448	0.156733778
3.744728174	-2.434103105	0.123194859
4.05387746	-2.429674306	0.085384632
4.445565161	-2.449650454	0.044030124
3.465470693	-2.437759827	0.002884034
3.763095819	-2.44716343	-0.040270243
4.068363318	-2.440480146	-0.086620589
4.329606251	-2.389202343	-0.137955737
3.422171495	-2.409444638	-0.150541996
3.701353358	-2.409402536	-0.200010192
4.027558074	-2.418488346	-0.258294607
4.368677863	-2.412653365	-0.322116372
3.361161122	-2.369122461	-0.298300871
3.767567355	-2.45503315	-0.369314126
4.122132247	-2.478510028	-0.440357816
3.711491359	-2.425214838	0.44620586
4.040715592	-2.434435366	0.430479215
4.456354661	-2.469787958	0.416646593
3.432351873	-2.42673195	0.310092972
3.739784733	-2.444447914	0.286727782
4.051454273	-2.442833439	0.258702574
4.447029652	-2.467664278	0.229877805
3.431196391	-2.427532134	0.156250831
3.712985847	-2.429707112	0.122395248
4.024147774	-2.428667747	0.084914984
4.395187338	-2.439499059	0.043605091
3.454710855	-2.446068947	0.002881311
3.732981581	-2.443908668	-0.040028032
4.036037883	-2.437958526	-0.086091196
4.327498341	-2.405387901	-0.138123048
3.370733382	-2.388729985	-0.148600912
3.665535359	-2.402129959	-0.198472005
3.979960832	-2.406550788	-0.255714412
4.357766823	-2.424104437	-0.321858701
3.375840203	-2.39500522	-0.300254324
3.740850818	-2.454006964	-0.367431543
4.099175165	-2.481861284	-0.43871675
3.403907312	-2.420081759	0.461978327
3.661639941	-2.408702898	0.441098934
4.021307486	-2.439589264	0.429206953
4.433962179	-2.475189522	0.415261023
3.409452172	-2.426264391	0.308695154
3.711426359	-2.442195876	0.285126681
4.026870385	-2.444887423	0.257610528
4.41763745	-2.469111098	0.228748967
3.412336633	-2.429932315	0.155730751
3.68714937	-2.428988552	0.121788651
4.003006659	-2.432694215	0.084625976
4.392919327	-2.455899596	0.043657137
3.436603624	-2.449111511	0.002872463
3.703758061	-2.441042588	-0.039794788
4.014871642	-2.442016088	-0.085799111
4.279976267	-2.396190427	-0.136840266
3.351998622	-2.390935334	-0.148097669
3.630631203	-2.395210542	-0.196979058
3.957207539	-2.409403058	-0.254726256
4.336379947	-2.429657959	-0.320828137
3.368476487	-2.405350819	-0.300254324
3.716671275	-2.454487645	-0.365794502
4.066033088	-2.478874436	-0.435981612
3.380300551	-2.418945007	0.459779453
3.673312893	-2.43256053	0.443402057
3.990858457	-2.437897954	0.426753299
4.398547072	-2.473149775	0.412652903
3.384966228	-2.424517817	0.30715023
3.65982216	-2.42436181	0.281732316
3.995497065	-2.442647265	0.25608167
4.393501702	-2.473341426	0.227891048
3.379686462	-2.422342862	0.154579114
3.654687945	-2.423714824	0.120961473
3.984437849	-2.438179357	0.084391156
4.330470927	-2.438455165	0.043110663
3.400633325	-2.439243562	0.002848639
3.675420728	-2.438573063	-0.039570518
3.986897851	-2.441789521	-0.085360987
4.248224431	-2.395562165	-0.136059431
3.329223339	-2.390134328	-0.147414704
3.604125803	-2.393626282	-0.19593851
3.931920583	-2.410572826	-0.253573383
4.304571117	-2.429217612	-0.319024649
3.322206151	-2.387733598	-0.296781519
3.685884419	-2.450428897	-0.363502673
4.043981531	-2.482480365	-0.434431683
3.428143472	-2.467413497	-0.462280463
3.334957115	-2.40200216	0.454612176
3.63602919	-2.423950143	0.439797168
3.960457837	-2.436043102	0.424299673
4.361451867	-2.469934116	0.409881793
3.362950252	-2.424393549	0.305825993
3.641573417	-2.42838078	0.280899728
3.982882293	-2.451753225	0.255754082
4.339835231	-2.460694313	0.225497892
3.351977951	-2.418084219	0.15365037
3.626450567	-2.421040159	0.120272153
3.965872634	-2.443573672	0.084156336
4.296005045	-2.436437095	0.042841764
3.354216189	-2.421568474	0.002815966
3.647965053	-2.436508197	-0.039355215
3.950452822	-2.436166132	-0.084740316
4.265192748	-2.422406625	-0.136840266
3.298384221	-2.383363185	-0.146372264
3.593443276	-2.402451436	-0.19575755
3.900716798	-2.407938657	-0.252036268
4.268468166	-2.426139616	-0.316899117
3.314864991	-2.39791466	-0.296781519
3.660127462	-2.449530686	-0.361701928
4.013474949	-2.480738812	-0.43197007
3.408482107	-2.469171695	-0.460648518
3.325157786	-2.410472213	0.454282353
3.599659088	-2.415688619	0.436292386
3.936032708	-2.437695168	0.422482149
4.314895048	-2.461082229	0.406214111
3.345003077	-2.42708559	0.304869578
3.620849152	-2.430642195	0.279875006
3.934603684	-2.438711081	0.253133206
4.298433279	-2.454676656	0.223736902
3.334839916	-2.421311077	0.153204572
3.609879469	-2.426021184	0.119968847
3.923523029	-2.43411859	0.083415741
4.279827091	-2.444645745	0.042755021
3.337872412	-2.425381683	0.002808479
3.628025266	-2.4393193	-0.039220653
3.9285201	-2.439308232	-0.084429977
4.211753473	-2.409175284	-0.135362265
3.287823981	-2.391120194	-0.146228483
3.536330139	-2.379998531	-0.193043095
3.871262062	-2.406189995	-0.250608916
4.231559148	-2.422367096	-0.314709154
3.308298882	-2.408660401	-0.29685385
3.63854352	-2.451281615	-0.360310457
3.997390546	-2.487778483	-0.431058329
3.386432685	-2.469075583	-0.458690149
3.292052982	-2.401915714	0.45076419
3.585635216	-2.422265147	0.4354913
3.91416987	-2.44080137	0.420937256
4.271026433	-2.453457695	0.402790957
3.321433229	-2.425573462	0.303398207
3.606760057	-2.437269359	0.279362673
3.910161929	-2.440197959	0.25204116
4.277026813	-2.459883727	0.223014434
3.31448628	-2.42209712	0.15261018
3.586688422	-2.426442523	0.119444967
3.898228705	-2.435020677	0.083036417
4.262772506	-2.452279551	0.042659605
3.317500975	-2.426165666	0.002797588
3.606446334	-2.440910244	-0.039068147
3.895584606	-2.435448724	-0.083882322
4.200011497	-2.419590518	-0.135222835
3.269182735	-2.392932108	-0.14572524
3.532319952	-2.393077929	-0.193224055
3.851165502	-2.410110235	-0.249785448
4.217190976	-2.431350422	-0.314193871
3.298480208	-2.417030183	-0.296636799
3.616158472	-2.452364083	-0.35883712
3.952609845	-2.476764651	-0.427046787
3.364415868	-2.46886729	-0.456731807
3.269446881	-2.400826598	0.448675285
3.554326922	-2.417028824	0.432587361
3.853528487	-2.419437753	0.415212081
4.23846103	-2.452075665	0.400427364
3.305940228	-2.429845729	0.302662508
3.568735382	-2.427555863	0.276993002
3.889974766	-2.444214237	0.251222132
4.237475533	-2.454467804	0.221343746
3.29576957	-2.423965228	0.152090099
3.5602241	-2.424493821	0.118810796
3.875505251	-2.437387407	0.082711281
4.237058833	-2.454819048	0.042477449
3.302793602	-2.430997154	0.002791462
3.574149029	-2.435072387	-0.038799021
3.855094112	-2.426616548	-0.083170374
4.156254465	-2.411395742	-0.134051589
3.248952607	-2.393466701	-0.1451501
3.517533457	-2.398837957	-0.192816895
3.810806936	-2.401154722	-0.247644419
4.186410813	-2.430748115	-0.312454787
3.240479469	-2.389843287	-0.292078742
3.586393142	-2.448274857	-0.356627129
3.914672473	-2.46975056	-0.423764627
3.337634674	-2.46500415	-0.454120677
3.259667879	-2.40907359	0.448345434
3.54689479	-2.427922063	0.432587361
3.830935608	-2.421670694	0.413576292
4.202499856	-2.44850995	0.397737735
3.282434873	-2.428114976	0.301191137
3.543979383	-2.426652973	0.275648082
3.86051836	-2.442257461	0.249802499
4.183329007	-2.440275216	0.218905439
3.275466132	-2.424552428	0.151495707
3.529683032	-2.419579513	0.118038759
3.851959493	-2.439102815	0.082368078
4.19495987	-2.447648945	0.04213048
3.274427886	-2.425642095	0.002773764
3.550168222	-2.434715366	-0.038619604
3.840875199	-2.434150656	-0.083024328
4.141068832	-2.419597001	-0.133800608
3.227144334	-2.39270942	-0.144503062
3.487096666	-2.393787923	-0.191550147
3.798363375	-2.409625492	-0.247315044
4.153951491	-2.428972311	-0.310586896
3.222721101	-2.392045896	-0.291138181
3.571472444	-2.45418641	-0.355890475
3.8801781	-2.464662927	-0.420847159
3.318089186	-2.466337219	-0.452488702
3.242691433	-2.411944362	0.447026144
3.494367178	-2.407742771	0.427079891
3.81424621	-2.427530729	0.412576661
4.168319458	-2.445755561	0.395211123
3.255771368	-2.423880708	0.299425498
3.519262462	-2.425621407	0.274303134
3.826899646	-2.437461151	0.248109846
4.168070252	-2.448544028	0.218499054
3.248779219	-2.420261946	0.150604111
3.505788097	-2.419042884	0.117487305
3.813264383	-2.431022355	0.081699746
4.153807214	-2.440750165	0.041792186
3.251738146	-2.424320008	0.002760831
3.535275661	-2.440482931	-0.038538866
3.809788652	-2.430864411	-0.082513188
4.122426389	-2.425699944	-0.133438078
3.210177093	-2.395426976	-0.144071718
3.496173431	-2.415832818	-0.192454961
3.750560907	-2.395469186	-0.244679923
4.122402713	-2.427526713	-0.308783409
3.211371847	-2.398937361	-0.290776411
3.547532814	-2.453792827	-0.354253433
3.85665813	-2.466361677	-0.419114898
3.304139073	-2.471741653	-0.451618325
3.230502365	-2.418307612	0.446366471
3.481240826	-2.414482683	0.426378941
3.798395799	-2.43384857	0.411667899
4.140202777	-2.446363829	0.393255048
3.235549868	-2.424289769	0.298248396
3.499505086	-2.427873913	0.273342456
3.807636108	-2.441644447	0.247345417
4.149361362	-2.454707609	0.217912068
3.23174414	-2.423024017	0.150158313
3.489318911	-2.423514332	0.117184006
3.789800881	-2.432448639	0.081356542
4.129948753	-2.443807027	0.041627379
3.233886809	-2.426482541	0.002751983
3.504778811	-2.43534055	-0.038287681
3.795583091	-2.438218118	-0.082367149
4.08142627	-2.41846241	-0.132350502
3.165254973	-2.377058922	-0.142382254
3.431337546	-2.386618514	-0.189288091
3.734795693	-2.401564197	-0.244130964
4.101202039	-2.432018452	-0.307752844
3.186458176	-2.395592696	-0.289184699
3.531808812	-2.458970222	-0.353434942
3.813906593	-2.455540396	-0.415285687
3.289393048	-2.476485796	-0.45063914
3.20639683	-2.415647559	0.444057684
3.44036776	-2.401800146	0.422273373
3.762458373	-2.427135691	0.408578114
4.101843418	-2.440706932	0.39032092
3.216152758	-2.425198204	0.297144846
3.479767228	-2.430028275	0.272381807
3.780833056	-2.440858429	0.246089577
4.128079243	-2.459245655	0.2171896
3.211532072	-2.423296889	0.14956392
3.463843434	-2.421607451	0.11657741
3.754608132	-2.426156889	0.080760458
4.094083798	-2.439574238	0.041341131
3.216052815	-2.428558421	0.002743134
3.477624794	-2.432326624	-0.038072381
3.778010338	-2.443335748	-0.082148088
4.063686526	-2.424825949	-0.132015852
3.149974658	-2.380733032	-0.142022794
3.388810213	-2.372498585	-0.18734273
3.720704648	-2.408670151	-0.243691767
4.086867126	-2.440496311	-0.307237562
3.161595462	-2.392117983	-0.287593015
3.498130661	-2.45149078	-0.350815676
3.778778958	-2.449355208	-0.412277024
3.261971908	-2.471557659	-0.447919202
3.1704578	-2.403855005	0.440099757
3.426470284	-2.407767281	0.421472286
3.734114572	-2.425107065	0.406306223
4.07125247	-2.439448383	0.388120316
3.195986441	-2.425407729	0.295967744
3.464947671	-2.435527739	0.271805401
3.765791902	-2.447549263	0.245598166
4.094815417	-2.456481661	0.215834995
3.177819487	-2.413194634	0.148337987
3.447405177	-2.425895018	0.116274104
3.737927865	-2.431666909	0.080561759
4.066858913	-2.440289836	0.041141624
3.195848163	-2.428732805	0.002732243
3.44888693	-2.428017935	-0.037839137
3.747873398	-2.440185545	-0.081655195
4.039091557	-2.426984976	-0.131458116
3.135497265	-2.384940629	-0.141699275
3.388864879	-2.388063055	-0.187749904
3.655577948	-2.382455973	-0.239903818
4.012654118	-2.412910749	-0.302213547
3.133610345	-2.386096385	-0.285711894
3.469418255	-2.4472749	-0.348687551
3.762072961	-2.454950569	-0.411274146
3.216431126	-2.452621366	-0.44269694
3.170179436	-2.418996974	0.441089253
3.405257844	-2.408500981	0.419769978
3.707485943	-2.424017617	0.404216096
4.054362256	-2.446263416	0.387223773
3.167923389	-2.419463093	0.294054941
3.436277863	-2.431160821	0.270140226
3.738212063	-2.44596989	0.244287728
4.068448341	-2.457668993	0.214841609
3.144199338	-2.402908459	0.147112054
3.423631699	-2.424904807	0.11572265
3.716230787	-2.433810986	0.080254691
4.027686175	-2.433621386	0.040820679
3.180438751	-2.432450951	0.002725436
3.425103844	-2.427024794	-0.03765972
3.727826321	-2.443450769	-0.081381371
3.98715357	-2.412456624	-0.130008009
3.104359119	-2.376325728	-0.140620893
3.381522332	-2.39844869	-0.187749904
3.643242358	-2.390373372	-0.239574427
3.994989007	-2.41900754	-0.301440623
3.116775047	-2.388419088	-0.284843692
3.440764697	-2.442906049	-0.346559397
3.742871184	-2.458826033	-0.409997742
3.203371216	-2.458241377	-0.441935342
3.129633762	-2.403286289	0.436471652
3.395421022	-2.41720559	0.41946957
3.685890549	-2.426072732	0.402671204
4.012766884	-2.43799014	0.383963638
3.1533693	-2.423700978	0.293392823
3.409293393	-2.427798699	0.268603171
3.709010016	-2.443146263	0.242868094
4.05064695	-2.463909373	0.214299758
3.124930488	-2.403404904	0.14655481
3.390943467	-2.417408497	0.114867897
3.682034843	-2.427589728	0.079676667
4.008241396	-2.438690063	0.040699242
3.150772557	-2.42511877	0.002706377
3.407058258	-2.429973053	-0.037543099
3.696945732	-2.439457396	-0.080870224
3.925099737	-2.391391803	-0.128223253
3.082803895	-2.374860907	-0.139973869
3.370082993	-2.405909514	-0.187523704
3.625893767	-2.394935801	-0.238915662
3.981584213	-2.427616083	-0.300989744
3.083369579	-2.377870196	-0.28245611
3.413792898	-2.439543664	-0.344594977
3.721189596	-2.460958956	-0.408447843
3.187160052	-2.461374102	-0.440738571
3.088428071	-2.386742227	0.431744139
3.376666111	-2.419498024	0.41806764
3.664317313	-2.428018227	0.401126311
3.989114667	-2.440407329	0.38241505
3.116731376	-2.410787649	0.290670798
3.391284388	-2.430689203	0.267770584
3.706490089	-2.457824769	0.243195682
4.020067998	-2.462237145	0.213080605
3.104898385	-2.403194346	0.145960418
3.366455362	-2.415562332	0.114288874
3.657075931	-2.427263439	0.079297343
3.981129329	-2.43896106	0.040499734
3.133040091	-2.426813026	0.002697528
3.386590058	-2.431084164	-0.037399564
3.665291941	-2.434744533	-0.08034083
3.90581606	-2.396104586	-0.127832842
3.066025786	-2.376959879	-0.139542511
3.347271765	-2.405161919	-0.186664116
3.611045931	-2.40107281	-0.238421569
3.944352114	-2.421546168	-0.298735377
3.08866676	-2.39710279	-0.283613721
3.384446643	-2.434292867	-0.342384985
3.698700947	-2.462430318	-0.406806748
3.173314398	-2.466260537	-0.439868193
3.08030645	-2.39559585	0.431634198
3.342596327	-2.41063997	0.414763158
3.646909467	-2.432617385	0.400035785
3.95275642	-2.434861591	0.37964394
3.106959573	-2.418500533	0.290450082
3.374908499	-2.434659615	0.267066087
3.649934242	-2.436476387	0.239974199
3.979333625	-2.454108076	0.211319615
3.08253185	-2.4010413	0.145254579
3.350924836	-2.420026501	0.114013143
3.628828261	-2.424585211	0.078845763
3.956606266	-2.440663774	0.040326251
3.116115784	-2.429036011	0.00268936
